,X,Y,Z,Classification
14088101,1177193.85,1883130.42,619.13,5
14088146,1177193.86,1884178.51,624.28,5
14088473,1177193.9000000001,1883525.45,594.3100000000001,2
14088652,1177193.93,1884516.62,624.52,5
14088814,1177193.95,1884169.09,627.22,5
14088874,1177193.96,1884772.49,603.32,3
14089039,1177193.98,1884439.1400000001,628.37,5
14089074,1177193.98,1883567.47,630.79,5
14089215,1177194.0,1883539.84,594.4,2
14089300,1177194.01,1883519.1600000001,609.3000000000001,4
14089311,1177194.01,1882847.07,595.1800000000001,2
14089312,1177194.01,1882825.5,594.9,2
14089442,1177194.03,1883708.8,606.47,4
14089445,1177194.03,1883693.12,619.0500000000001,5
14089775,1177194.08,1883913.51,623.26,5
14089909,1177194.1,1883702.35,611.66,4
14091341,1177194.3,1884572.22,627.5600000000001,5
14091537,1177194.32,1884315.99,638.76,5
14091599,1177194.32,1882992.2,598.62,3
14091805,1177194.35,1884673.75,594.23,2
14092458,1177194.41,1883897.98,634.29,5
14092690,1177194.43,1883696.1500000001,622.03,5
14092782,1177194.44,1883911.56,629.95,5
14093415,1177194.5,1884312.96,621.4,5
14093928,1177194.54,1882563.62,600.65,3
14094380,1177194.58,1882597.12,595.15,2
14094430,1177194.59,1884143.77,643.99,5
14095063,1177194.6500000001,1883913.2,610.34,4
14095446,1177194.69,1883828.84,642.82,5
14095588,1177194.71,1884535.52,619.95,5
14095870,1177194.74,1884561.8,642.8100000000001,5
14095998,1177194.75,1883709.02,619.03,5
14096001,1177194.75,1883695.8900000001,629.88,5
14096294,1177194.79,1884120.09,624.09,5
14096636,1177194.84,1884869.42,594.07,2
14096655,1177194.84,1884317.18,637.79,5
14096785,1177194.86,1884791.25,619.77,5
14097037,1177194.8900000001,1883571.48,638.86,5
14097046,1177194.9000000001,1884905.43,639.59,5
14097085,1177194.9000000001,1883918.25,611.75,4
14097176,1177194.91,1883080.34,595.78,2
14097399,1177194.95,1884084.44,624.63,5
14097711,1177195.0,1884301.57,620.67,5
14097784,1177195.01,1884325.67,633.32,5
14097871,1177195.02,1883707.07,605.33,4
14097915,1177195.03,1884075.69,594.45,2
14098046,1177195.05,1883932.24,624.85,5
14098248,1177195.08,1884525.18,605.58,4
14098281,1177195.08,1883862.73,629.3000000000001,5
14098428,1177195.1,1884116.0,623.04,5
14098475,1177195.11,1884658.2,601.51,3
14098723,1177195.1400000001,1884109.96,643.13,5
14098769,1177195.1400000001,1882612.35,595.19,2
14099200,1177195.2,1884523.48,612.39,4
14099219,1177195.2,1884133.96,637.73,5
14099455,1177195.23,1884327.1300000001,636.1800000000001,5
14099710,1177195.26,1884121.9100000001,646.04,5
14099901,1177195.28,1883525.51,610.19,4
14100143,1177195.31,1883229.9100000001,593.19,2
14100194,1177195.32,1884124.74,620.32,5
14100232,1177195.32,1883571.49,594.65,2
14100483,1177195.35,1883881.8800000001,639.77,5
14100841,1177195.3900000001,1882575.51,595.07,2
14100933,1177195.41,1884525.73,608.95,4
14101068,1177195.42,1882812.47,611.54,4
14101423,1177195.47,1883819.28,635.0600000000001,5
14101466,1177195.48,1884526.5,608.96,4
14101523,1177195.49,1884840.68,608.6,4
14101753,1177195.52,1884421.29,623.3000000000001,5
14101791,1177195.52,1883684.51,606.0500000000001,4
14102074,1177195.56,1884116.73,594.36,2
14102494,1177195.61,1883443.7,594.41,2
14102989,1177195.67,1883703.35,625.23,5
14103334,1177195.71,1883563.67,633.23,5
14103353,1177195.71,1882645.4000000001,595.41,2
14103480,1177195.73,1884386.28,594.09,2
14103555,1177195.73,1882810.29,612.97,4
14103776,1177195.75,1883558.21,627.86,5
14104017,1177195.78,1884728.54,594.25,2
14104018,1177195.78,1884704.8900000001,594.3000000000001,2
14104023,1177195.78,1884561.35,642.23,5
14104068,1177195.78,1883992.96,624.04,5
14104766,1177195.84,1882688.27,595.61,2
14105046,1177195.87,1883563.61,636.27,5
14105105,1177195.8800000001,1884259.82,618.5500000000001,5
14105949,1177195.95,1883906.9100000001,630.85,5
14106344,1177195.99,1884103.62,623.13,5
14106840,1177196.04,1883842.6300000001,627.29,5
14106919,1177196.05,1883823.1600000001,643.4300000000001,5
14107183,1177196.08,1883846.75,629.75,5
14107220,1177196.09,1884588.49,594.1,2
14107264,1177196.09,1883909.54,633.49,5
14107403,1177196.11,1884260.55,594.61,2
14108036,1177196.19,1883546.81,613.62,4
14108111,1177196.2,1883099.35,611.91,4
14108210,1177196.22,1884307.1300000001,639.03,5
14108352,1177196.24,1884332.93,633.72,5
14108367,1177196.24,1884135.3900000001,634.1,5
14108451,1177196.26,1884837.0,594.0600000000001,2
14108832,1177196.32,1884208.6500000001,594.77,2
14108839,1177196.32,1884029.09,623.32,5
14108916,1177196.33,1883875.24,634.15,5
14108957,1177196.34,1884421.27,620.64,5
14109244,1177196.3900000001,1884454.93,593.9,2
14109266,1177196.3900000001,1884110.19,646.41,5
14109512,1177196.43,1883910.76,629.63,5
14109632,1177196.45,1883915.19,636.5500000000001,5
14109715,1177196.46,1883869.25,634.64,5
14109990,1177196.5,1882665.79,595.47,2
14110352,1177196.55,1882938.6500000001,598.74,3
14110543,1177196.57,1883355.6300000001,594.3100000000001,2
14110627,1177196.58,1883704.28,611.88,4
14110790,1177196.6,1883851.68,634.04,5
14111547,1177196.68,1883571.1400000001,639.89,5
14111611,1177196.69,1884251.28,613.5600000000001,4
14111887,1177196.72,1884544.67,626.3100000000001,5
14112001,1177196.73,1884126.4100000001,631.41,5
14112166,1177196.75,1884338.72,628.86,5
14112232,1177196.76,1884877.5,630.1800000000001,5
14112318,1177196.76,1882938.03,598.74,3
14112393,1177196.77,1883550.67,594.62,2
14112420,1177196.78,1884574.45,617.15,5
14112653,1177196.8,1883549.1400000001,629.0500000000001,5
14112788,1177196.82,1884529.59,624.6,5
14112823,1177196.82,1883580.11,617.15,5
14113119,1177196.85,1883111.3800000001,616.38,5
14113245,1177196.87,1884411.53,614.29,5
14113395,1177196.8800000001,1883102.17,615.79,5
14113407,1177196.8800000001,1882540.95,594.91,2
14113633,1177196.91,1884091.03,631.28,5
14113767,1177196.92,1882807.03,607.48,4
14113798,1177196.93,1884333.01,629.69,5
14113898,1177196.94,1884116.8800000001,594.23,2
14113932,1177196.94,1882837.02,594.98,2
14114273,1177196.98,1883135.42,594.4,2
14114427,1177197.0,1883562.74,630.62,5
14114435,1177197.0,1883435.75,594.4,2
14115168,1177197.1,1884522.6600000001,632.61,5
14115608,1177197.1500000001,1884328.44,631.76,5
14115758,1177197.17,1884884.69,635.25,5
14116200,1177197.22,1884529.26,628.17,5
14116466,1177197.25,1884998.96,629.22,5
14116516,1177197.25,1883919.73,633.4,5
14116750,1177197.27,1882581.92,599.5600000000001,3
14116930,1177197.29,1883873.84,621.32,5
14116959,1177197.29,1883572.4000000001,632.24,5
14117163,1177197.31,1882808.45,611.8100000000001,4
14118194,1177197.42,1884901.33,645.0600000000001,5
14118297,1177197.43,1884506.22,633.94,5
14118551,1177197.46,1884920.53,621.76,5
14119161,1177197.53,1884430.9100000001,623.07,5
14119276,1177197.54,1883168.83,608.3000000000001,4
14119347,1177197.55,1882548.33,595.01,2
14119658,1177197.6,1883573.92,634.71,5
14119877,1177197.6400000001,1884119.12,652.07,5
14120089,1177197.68,1884555.6400000001,629.16,5
14120150,1177197.69,1884333.3900000001,634.61,5
14120274,1177197.71,1884797.93,593.88,2
14120518,1177197.75,1883702.76,622.48,5
14120661,1177197.78,1884318.18,639.2,5
14121151,1177197.85,1883375.09,594.36,2
14121168,1177197.86,1884374.58,594.1800000000001,2
14121222,1177197.86,1883558.62,629.19,5
14121454,1177197.9000000001,1884314.8900000001,640.4,5
14121916,1177197.95,1883572.72,637.48,5
14122217,1177197.98,1883718.99,594.32,2
14122315,1177197.99,1883588.74,623.42,5
14122557,1177198.02,1884361.6400000001,594.21,2
14122615,1177198.02,1883663.32,594.34,2
14122656,1177198.03,1884922.48,613.37,4
14122680,1177198.03,1884533.1400000001,613.79,4
14122758,1177198.03,1883551.69,624.5,5
14122916,1177198.05,1884298.04,621.6800000000001,5
14123062,1177198.06,1884286.33,618.69,5
14123251,1177198.08,1884508.1500000001,635.9300000000001,5
14123505,1177198.1,1884110.35,634.88,5
14123935,1177198.1400000001,1883529.5,622.2,5
14124189,1177198.17,1884518.54,632.19,5
14124679,1177198.22,1884938.81,593.75,2
14125515,1177198.3,1882866.6,595.23,2
14125706,1177198.32,1883107.02,615.23,5
14125881,1177198.35,1884792.23,614.65,5
14125931,1177198.35,1883694.68,623.4300000000001,5
14127044,1177198.5,1883515.53,613.89,4
14127258,1177198.54,1884787.32,622.21,5
14127293,1177198.54,1883718.17,609.3000000000001,4
14127537,1177198.57,1884040.56,626.44,5
14127749,1177198.6,1884513.3800000001,632.72,5
14128537,1177198.69,1884113.31,649.29,5
14128829,1177198.72,1883825.3900000001,646.67,5
14129205,1177198.76,1883884.47,639.5600000000001,5
14129362,1177198.78,1884338.29,626.87,5
14129672,1177198.81,1883544.4100000001,630.17,5
14129685,1177198.81,1882668.69,595.48,2
14129964,1177198.85,1884879.1300000001,629.3000000000001,5
14130074,1177198.86,1884150.1300000001,647.1800000000001,5
14130104,1177198.86,1883554.19,631.5500000000001,5
14130252,1177198.8800000001,1883904.46,636.63,5
14130486,1177198.91,1884282.22,622.79,5
14130637,1177198.93,1884148.94,641.08,5
14130677,1177198.93,1882934.4100000001,595.52,2
14131218,1177199.01,1883159.87,614.74,5
14131685,1177199.09,1884124.6300000001,622.39,5
14131760,1177199.1,1883929.0,629.24,5
14131763,1177199.1,1883846.99,636.15,5
14131900,1177199.12,1883860.58,594.19,2
14131989,1177199.1300000001,1883104.29,614.19,4
14131991,1177199.1300000001,1882830.46,594.8000000000001,2
14132357,1177199.19,1884555.57,639.85,5
14132381,1177199.19,1884268.1600000001,626.61,5
14132529,1177199.21,1883868.26,594.36,2
14132662,1177199.23,1884162.3800000001,594.64,2
14132675,1177199.23,1883994.33,631.21,5
14132881,1177199.26,1884441.24,594.09,2
14133645,1177199.35,1883838.6500000001,634.62,5
14133654,1177199.35,1883689.17,612.52,4
14134231,1177199.41,1883668.3,594.27,2
14134527,1177199.44,1883872.68,621.26,5
14134745,1177199.46,1883704.08,618.86,5
14135487,1177199.53,1884543.1,634.89,5
14135557,1177199.53,1883170.1500000001,609.91,4
14135688,1177199.55,1884546.93,622.82,5
14135691,1177199.55,1884573.01,617.12,5
14135810,1177199.56,1884095.95,634.51,5
14136085,1177199.59,1884604.3900000001,594.15,2
14136127,1177199.59,1884082.4100000001,627.32,5
14136266,1177199.6,1882894.1,595.4300000000001,2
14136347,1177199.61,1883590.06,621.88,5
14136626,1177199.6400000001,1883830.48,644.45,5
14136643,1177199.6400000001,1883170.68,612.99,4
14136743,1177199.6500000001,1883157.7,609.61,4
14136841,1177199.66,1883105.29,612.83,4
14136847,1177199.66,1882813.4100000001,611.2,4
14137007,1177199.68,1884045.1300000001,619.77,5
14137356,1177199.72,1884098.9100000001,635.63,5
14137591,1177199.75,1884319.82,641.4,5
14137595,1177199.75,1884189.6300000001,623.6,5
14138023,1177199.81,1884101.69,635.02,5
14138763,1177199.92,1884900.9100000001,644.78,5
14138891,1177199.93,1883134.74,594.4,2
14139012,1177199.95,1883559.45,635.92,5
14139021,1177199.95,1882813.71,602.58,3
14139063,1177199.96,1883872.6300000001,637.91,5
14139440,1177200.02,1884336.69,627.1800000000001,5
14139507,1177200.03,1884422.54,594.62,2
14139619,1177200.04,1883553.69,629.47,5
14139708,1177200.06,1884889.25,643.38,5
14139710,1177200.06,1884582.01,613.6800000000001,4
14140468,1177200.1500000001,1883852.92,630.53,5
14140932,1177200.2,1883889.85,639.74,5
14140970,1177200.21,1884551.55,639.5600000000001,5
14141376,1177200.25,1884524.61,623.85,5
14141391,1177200.25,1884146.4100000001,641.62,5
14141596,1177200.27,1883699.17,619.77,5
14141720,1177200.29,1884531.6300000001,631.11,5
14142073,1177200.33,1884612.3,594.0600000000001,2
14142084,1177200.33,1884524.23,614.5600000000001,5
14142311,1177200.35,1883219.8900000001,593.16,2
14142715,1177200.4000000001,1883101.48,612.67,4
14142815,1177200.42,1884430.61,628.85,5
14143780,1177200.54,1882821.9000000001,594.76,2
14144351,1177200.6300000001,1884307.62,637.51,5
14144758,1177200.69,1884336.68,629.85,5
14144918,1177200.71,1884320.37,641.85,5
14145094,1177200.73,1883701.35,594.29,2
14145106,1177200.73,1883535.58,634.3100000000001,5
14145233,1177200.75,1883883.85,641.0,5
14145326,1177200.76,1883568.4000000001,639.5,5
14145394,1177200.77,1883898.09,634.71,5
14145514,1177200.79,1884906.69,628.42,5
14146410,1177200.8800000001,1884553.42,641.33,5
14146446,1177200.8800000001,1884117.99,630.57,5
14147092,1177200.94,1884913.18,624.16,5
14147557,1177200.98,1884189.45,623.45,5
14147587,1177200.98,1883829.94,643.83,5
14147884,1177201.01,1883958.71,594.36,2
14148124,1177201.03,1883219.92,593.19,2
14148188,1177201.04,1883566.27,643.23,5
14148434,1177201.07,1884107.69,649.87,5
14148533,1177201.08,1884100.8900000001,637.27,5
14148638,1177201.09,1883114.71,611.45,4
14148646,1177201.1,1884881.26,630.57,5
14148740,1177201.11,1884869.44,621.28,5
14148853,1177201.12,1884046.07,632.26,5
14148868,1177201.12,1883690.72,612.19,4
14148959,1177201.1300000001,1883579.8,623.8100000000001,5
14149000,1177201.1400000001,1884553.32,627.89,5
14149157,1177201.16,1884095.04,637.67,5
14149512,1177201.21,1884317.73,635.09,5
14149706,1177201.24,1884311.96,594.45,2
14149719,1177201.24,1884011.98,626.29,5
14149880,1177201.26,1883841.69,638.02,5
14149908,1177201.26,1882814.1500000001,611.37,4
14149995,1177201.28,1884429.27,627.84,5
14150083,1177201.29,1884408.27,621.14,5
14150432,1177201.34,1884794.1600000001,612.62,4
14150676,1177201.37,1884044.3800000001,621.83,5
14150694,1177201.37,1883720.4100000001,613.86,4
14151012,1177201.42,1884552.94,639.98,5
14151196,1177201.44,1883897.67,639.67,5
14151615,1177201.49,1883931.61,624.24,5
14152010,1177201.54,1884795.33,615.0500000000001,5
14152293,1177201.57,1884046.83,594.16,2
14152306,1177201.57,1883914.68,632.46,5
14152601,1177201.6,1884102.0,637.17,5
14152951,1177201.6400000001,1884286.48,594.28,2
14153054,1177201.6500000001,1884301.78,616.41,5
14153193,1177201.66,1883954.26,594.32,2
14153260,1177201.67,1884305.28,625.75,5
14153410,1177201.68,1883684.8800000001,594.29,2
14153422,1177201.68,1883303.57,593.64,2
14153996,1177201.75,1884318.3900000001,640.59,5
14154081,1177201.76,1884537.4000000001,628.53,5
14154336,1177201.79,1884495.96,619.13,5
14154391,1177201.8,1884514.81,623.84,5
14154602,1177201.83,1884515.24,622.32,5
14154631,1177201.83,1884111.26,649.99,5
14154650,1177201.83,1883532.08,631.25,5
14154837,1177201.86,1884432.2,622.66,5
14154927,1177201.87,1884109.83,649.34,5
14154941,1177201.87,1883580.3900000001,630.29,5
14154952,1177201.87,1883200.36,593.75,2
14155196,1177201.91,1884530.57,615.67,5
14155317,1177201.92,1883817.72,593.89,2
14155517,1177201.95,1884101.55,635.67,5
14156039,1177202.02,1883543.3800000001,594.75,2
14156766,1177202.1300000001,1884254.5,623.87,5
14156911,1177202.1500000001,1884444.76,594.04,2
14157208,1177202.18,1883372.18,594.21,2
14157285,1177202.19,1882636.24,600.6800000000001,3
14157412,1177202.21,1884322.1,639.49,5
14158165,1177202.28,1883547.82,631.58,5
14158184,1177202.29,1884561.71,620.28,5
14158247,1177202.29,1883822.51,647.5,5
14158470,1177202.31,1883665.43,594.27,2
14158498,1177202.32,1884909.69,615.97,5
14158552,1177202.32,1884117.68,648.7,5
14158873,1177202.35,1883870.1600000001,629.34,5
14158956,1177202.36,1884155.46,648.4,5
14159005,1177202.36,1883598.6400000001,618.77,5
14159018,1177202.36,1883495.45,620.28,5
14159612,1177202.42,1884259.02,615.4,5
14159677,1177202.43,1884972.42,603.45,3
14159875,1177202.44,1883625.67,594.33,2
14160076,1177202.46,1883564.0,643.26,5
14160106,1177202.47,1884507.31,630.89,5
14160193,1177202.48,1884569.78,597.13,3
14160485,1177202.51,1884508.51,631.88,5
14160763,1177202.54,1884432.9100000001,624.26,5
14161000,1177202.56,1883167.29,610.13,4
14161125,1177202.58,1884135.4100000001,621.36,5
14161205,1177202.59,1884012.47,627.14,5
14161662,1177202.6500000001,1884416.36,616.92,5
14161689,1177202.6500000001,1883693.01,618.5,5
14162034,1177202.69,1883577.31,626.09,5
14162072,1177202.7,1884267.44,608.75,4
14162465,1177202.75,1884115.44,594.4300000000001,2
14162496,1177202.75,1882753.2,595.14,2
14162711,1177202.78,1883463.98,594.42,2
14162921,1177202.81,1883796.96,594.01,2
14163536,1177202.9000000001,1883915.96,631.91,5
14163658,1177202.92,1884430.47,625.78,5
14164078,1177202.97,1883883.56,634.0600000000001,5
14164334,1177203.0,1883842.92,643.02,5
14164431,1177203.01,1883876.21,639.0,5
14164432,1177203.01,1883884.93,639.39,5
14164646,1177203.03,1883534.8,633.8100000000001,5
14164717,1177203.04,1883677.04,594.4300000000001,2
14164793,1177203.05,1884105.59,623.91,5
14164812,1177203.05,1883846.37,644.5500000000001,5
14164924,1177203.06,1883720.31,612.11,4
14165072,1177203.08,1884884.55,639.95,5
14165161,1177203.08,1882584.24,595.03,2
14165314,1177203.1,1883868.32,636.58,5
14165335,1177203.1,1883573.06,612.22,4
14165474,1177203.12,1884127.24,648.33,5
14166119,1177203.19,1884571.3,612.88,4
14166351,1177203.21,1882578.4000000001,595.04,2
14166723,1177203.26,1884117.55,643.5,5
14167079,1177203.31,1884100.79,633.5500000000001,5
14167169,1177203.32,1884113.54,624.16,5
14167334,1177203.34,1883730.76,608.74,4
14167429,1177203.36,1884496.79,617.86,5
14167572,1177203.3800000001,1884898.4100000001,593.9300000000001,2
14167626,1177203.3800000001,1883534.8800000001,630.6800000000001,5
14167804,1177203.41,1884509.81,594.09,2
14168108,1177203.45,1884340.43,628.07,5
14168433,1177203.49,1884119.97,621.94,5
14168449,1177203.49,1883707.48,613.7,4
14168523,1177203.5,1884176.44,624.6,5
14168681,1177203.52,1884044.97,629.32,5
14168734,1177203.53,1884790.81,607.67,4
14168773,1177203.53,1884058.46,612.86,4
14168934,1177203.55,1884185.9000000001,634.87,5
14169050,1177203.56,1883599.54,623.34,5
14169517,1177203.62,1884921.2,620.72,5
14169548,1177203.62,1884266.4100000001,627.6,5
14170430,1177203.7,1883874.8900000001,637.23,5
14170453,1177203.7,1883602.79,609.99,4
14170591,1177203.72,1884423.43,619.33,5
14170613,1177203.72,1884144.55,644.74,5
14170620,1177203.72,1884038.6400000001,600.72,3
14171025,1177203.75,1883549.9000000001,634.66,5
14171032,1177203.75,1883526.02,632.21,5
14171271,1177203.77,1882697.0,595.63,2
14171296,1177203.78,1884568.18,634.9,5
14171495,1177203.79,1883819.62,649.6800000000001,5
14171663,1177203.81,1884534.03,626.0600000000001,5
14171690,1177203.81,1884124.26,649.23,5
14171994,1177203.83,1882636.6500000001,600.78,3
14172092,1177203.84,1883692.8,613.54,4
14172277,1177203.86,1883920.56,627.66,5
14172653,1177203.8900000001,1883542.74,634.5,5
14172875,1177203.92,1884629.71,594.01,2
14173045,1177203.93,1882607.98,595.01,2
14173323,1177203.96,1883585.24,594.58,2
14173359,1177203.97,1884327.7,638.8100000000001,5
14173400,1177203.97,1883579.4000000001,623.17,5
14173432,1177203.98,1884513.52,625.34,5
14173489,1177203.98,1882510.62,594.52,2
14173512,1177203.99,1884329.3900000001,628.36,5
14173545,1177203.99,1883803.6400000001,628.27,5
14174003,1177204.05,1883693.84,613.67,4
14174608,1177204.1400000001,1884403.3800000001,620.71,5
14174617,1177204.1400000001,1884132.1600000001,594.14,2
14174874,1177204.18,1884087.58,623.52,5
14175141,1177204.22,1884512.82,628.17,5
14175188,1177204.22,1883585.37,611.74,4
14175529,1177204.27,1883998.93,629.46,5
14175564,1177204.27,1883165.37,619.1800000000001,5
14175627,1177204.28,1883570.68,638.1,5
14175701,1177204.3,1884783.67,609.09,4
14175827,1177204.31,1883714.0,611.19,4
14175946,1177204.33,1884308.98,632.96,5
14176434,1177204.3800000001,1883874.29,629.7,5
14176457,1177204.3800000001,1883556.23,634.86,5
14176798,1177204.42,1882640.32,600.66,3
14177010,1177204.44,1883391.0,594.23,2
14177038,1177204.45,1884363.92,594.11,2
14177647,1177204.51,1883604.49,604.65,4
14177767,1177204.52,1883557.44,633.9,5
14177924,1177204.54,1884117.6300000001,651.2,5
14177955,1177204.54,1883499.28,613.36,4
14178111,1177204.56,1884086.01,621.12,5
14178169,1177204.57,1884909.1400000001,633.24,5
14178566,1177204.6,1883525.18,626.78,5
14178952,1177204.6400000001,1883548.48,594.61,2
14179163,1177204.66,1883167.23,613.65,4
14179287,1177204.68,1884179.11,631.25,5
14179503,1177204.7,1883892.01,615.72,5
14179552,1177204.71,1884564.43,623.19,5
14179756,1177204.73,1884411.97,626.92,5
14180107,1177204.77,1884440.94,624.42,5
14180167,1177204.78,1884914.56,641.33,5
14180273,1177204.79,1884509.1500000001,615.61,5
14180284,1177204.79,1884524.18,636.21,5
14180400,1177204.8,1884125.94,644.53,5
14180475,1177204.81,1884258.31,610.63,4
14180677,1177204.83,1883703.1300000001,605.85,4
14180684,1177204.83,1883491.69,615.28,5
14180985,1177204.87,1884295.98,618.0600000000001,5
14180987,1177204.87,1884327.02,637.1800000000001,5
14181116,1177204.8800000001,1883135.3,594.45,2
14181217,1177204.9000000001,1884835.52,594.02,2
14181433,1177204.92,1883987.37,634.63,5
14181659,1177204.95,1884821.78,594.0500000000001,2
14182062,1177204.99,1883712.59,610.11,4
14182246,1177205.01,1884036.12,622.4300000000001,5
14182731,1177205.06,1884300.58,631.71,5
14182806,1177205.06,1883076.1400000001,595.19,2
14183125,1177205.09,1883592.94,623.38,5
14183415,1177205.12,1883719.6600000001,594.23,2
14183731,1177205.1500000001,1883880.2,632.52,5
14183790,1177205.16,1884545.82,636.6,5
14184054,1177205.18,1884167.72,646.29,5
14184754,1177205.24,1883997.53,597.95,3
14185087,1177205.27,1884153.42,645.5600000000001,5
14185191,1177205.28,1884130.34,644.15,5
14185281,1177205.29,1884535.3800000001,621.61,5
14185452,1177205.31,1884911.1300000001,639.35,5
14185713,1177205.33,1883544.2,634.0500000000001,5
14186070,1177205.37,1883580.94,632.15,5
14186308,1177205.4000000001,1884303.47,622.37,5
14186377,1177205.41,1884932.3800000001,594.07,2
14186601,1177205.43,1883162.01,617.72,5
14186706,1177205.45,1883957.1300000001,595.84,3
14187015,1177205.5,1884579.19,593.95,2
14187112,1177205.51,1883929.92,621.36,5
14187118,1177205.51,1883817.23,593.72,7
14187899,1177205.6300000001,1884016.6600000001,628.67,5
14188180,1177205.67,1883599.4000000001,623.24,5
14188839,1177205.76,1884096.32,623.89,5
14188976,1177205.78,1884788.58,593.84,2
14189392,1177205.82,1883564.07,634.24,5
14189477,1177205.83,1883903.6500000001,627.32,5
14189978,1177205.8800000001,1883601.83,622.72,5
14190030,1177205.8900000001,1884113.3900000001,653.16,5
14190367,1177205.92,1884122.22,649.67,5
14191039,1177205.98,1884650.6500000001,594.0500000000001,2
14191059,1177205.98,1884420.93,620.08,5
14191317,1177206.0,1883968.51,602.0,3
14191799,1177206.04,1884550.02,620.8000000000001,5
14191936,1177206.05,1884160.48,647.4300000000001,5
14192068,1177206.06,1883982.56,599.15,3
14192335,1177206.08,1883718.33,609.3000000000001,4
14192624,1177206.11,1884338.72,628.67,5
14192817,1177206.12,1883161.3800000001,614.24,4
14192916,1177206.1300000001,1883601.5,610.29,4
14193114,1177206.1500000001,1884108.33,627.19,5
14193146,1177206.1500000001,1883490.99,626.76,5
14193347,1177206.17,1883496.09,622.39,5
14193884,1177206.23,1884297.6300000001,628.44,5
14193998,1177206.24,1884023.54,639.3100000000001,5
14194004,1177206.24,1883903.79,594.32,2
14194014,1177206.24,1883558.4100000001,632.99,5
14194432,1177206.29,1884030.74,641.5,5
14194533,1177206.3,1883567.96,639.57,5
14194820,1177206.34,1884288.33,626.92,5
14195048,1177206.37,1884524.95,594.02,2
14195464,1177206.42,1883167.69,603.72,3
14195510,1177206.43,1883796.26,594.04,2
14195699,1177206.46,1884915.86,628.72,5
14195773,1177206.46,1882710.6600000001,595.52,2
14195849,1177206.48,1884917.25,628.21,5
14195953,1177206.49,1884292.78,641.23,5
14196002,1177206.49,1883579.22,630.53,5
14196055,1177206.5,1884002.72,634.95,5
14196208,1177206.52,1884580.24,616.33,5
14196344,1177206.53,1883729.78,610.24,4
14196557,1177206.56,1884008.1,620.83,5
14196661,1177206.57,1883953.44,619.24,5
14196683,1177206.57,1883730.55,593.33,2
14196814,1177206.59,1884544.26,625.35,5
14196854,1177206.59,1883934.72,598.67,3
14196874,1177206.59,1883585.86,629.62,5
14196955,1177206.6,1883550.61,634.38,5
14197023,1177206.61,1884036.78,613.51,4
14197040,1177206.61,1883835.44,651.1,5
14197073,1177206.62,1884901.2,632.53,5
14197150,1177206.62,1883682.78,594.17,2
14197234,1177206.6300000001,1883928.25,622.24,5
14197528,1177206.66,1884144.54,627.32,5
14197592,1177206.67,1884881.94,626.34,5
14197686,1177206.68,1884538.28,626.74,5
14197794,1177206.69,1884319.75,594.22,2
14197974,1177206.7,1883544.83,631.37,5
14198132,1177206.72,1884128.8900000001,644.8100000000001,5
14198146,1177206.72,1883967.4100000001,594.17,2
14198424,1177206.75,1883811.84,645.47,5
14198533,1177206.76,1883576.81,628.09,5
14198615,1177206.77,1884020.06,593.95,2
14198677,1177206.78,1884941.78,593.9300000000001,2
14198874,1177206.8,1884265.87,606.49,4
14199045,1177206.82,1884283.43,622.19,5
14199063,1177206.82,1883895.02,636.5600000000001,5
14199400,1177206.87,1884922.94,594.09,2
14199570,1177206.8900000001,1884061.6400000001,623.25,5
14199811,1177206.92,1884137.18,594.24,2
14199961,1177206.94,1883509.3900000001,621.8000000000001,5
14200145,1177206.97,1884183.52,637.16,5
14200637,1177207.05,1884827.6500000001,594.04,2
14201323,1177207.1400000001,1884907.76,620.9300000000001,5
14201381,1177207.1400000001,1883892.1300000001,641.77,5
14201441,1177207.1500000001,1884314.49,639.08,5
14201777,1177207.19,1884299.48,639.24,5
14201864,1177207.2,1884795.27,604.0500000000001,4
14202256,1177207.24,1884913.87,621.64,5
14202343,1177207.24,1883069.55,595.27,2
14202610,1177207.27,1883942.59,603.65,3
14203182,1177207.32,1883707.4100000001,594.26,2
14203317,1177207.33,1883569.61,630.59,5
14203508,1177207.35,1884191.6400000001,625.45,5
14203531,1177207.35,1883917.33,618.69,5
14203768,1177207.37,1884024.67,622.02,5
14204240,1177207.41,1884281.67,623.64,5
14204693,1177207.44,1882986.47,595.04,2
14204893,1177207.46,1883924.23,623.66,5
14205001,1177207.47,1884154.05,643.8000000000001,5
14205022,1177207.47,1883921.4100000001,622.2,5
14205037,1177207.47,1883848.98,647.59,5
14205394,1177207.5,1883917.19,620.29,5
14205778,1177207.54,1884525.8,630.99,5
14205835,1177207.54,1883523.61,620.76,5
14205893,1177207.55,1884110.49,652.53,5
14205976,1177207.56,1884214.62,608.1800000000001,4
14206081,1177207.57,1884096.47,640.3100000000001,5
14206269,1177207.59,1884559.6400000001,594.17,2
14206724,1177207.6300000001,1883182.27,594.4,2
14206828,1177207.6500000001,1884539.93,623.0500000000001,5
14206956,1177207.66,1883601.73,615.1,5
14207006,1177207.67,1884011.55,621.88,5
14207277,1177207.71,1884265.19,628.54,5
14207281,1177207.71,1884139.73,642.89,5
14207804,1177207.79,1884332.81,631.23,5
14208224,1177207.85,1884054.71,614.65,5
14208553,1177207.8900000001,1884099.1600000001,624.63,5
14208595,1177207.8900000001,1882755.49,595.2,2
14208686,1177207.91,1884810.21,593.98,2
14208804,1177207.92,1883996.6300000001,620.74,5
14208855,1177207.93,1884565.95,634.03,5
14208945,1177207.94,1884554.25,639.42,5
14209047,1177207.95,1884091.52,594.01,2
14209519,1177208.01,1884561.35,627.38,5
14209543,1177208.01,1884140.62,644.52,5
14209744,1177208.03,1883848.43,648.75,5
14209953,1177208.05,1883699.8900000001,606.75,4
14209975,1177208.05,1882692.58,595.5,2
14210141,1177208.07,1883595.8,627.72,5
14210222,1177208.08,1883598.51,631.11,5
14210318,1177208.09,1883547.69,636.17,5
14210398,1177208.1,1883851.55,640.44,5
14210499,1177208.11,1883850.97,638.75,5
14210934,1177208.16,1884875.59,628.4300000000001,5
14211417,1177208.2,1883592.47,627.1800000000001,5
14211537,1177208.21,1883526.79,634.1800000000001,5
14211643,1177208.22,1882854.4100000001,595.09,2
14211998,1177208.26,1884003.33,631.5600000000001,5
14212267,1177208.29,1884288.7,630.3000000000001,5
14212283,1177208.29,1884108.71,643.49,5
14212454,1177208.31,1884131.72,642.83,5
14212628,1177208.33,1884152.09,612.71,4
14212720,1177208.34,1884142.37,623.11,5
14213052,1177208.3800000001,1884407.6400000001,627.04,5
14213143,1177208.3900000001,1884128.93,640.74,5
14213305,1177208.41,1883895.79,643.24,5
14213603,1177208.45,1883976.35,618.59,5
14213614,1177208.45,1883724.17,615.77,5
14213625,1177208.45,1883166.44,594.54,2
14213939,1177208.5,1884513.33,594.0500000000001,2
14213988,1177208.5,1883135.36,594.46,2
14214028,1177208.51,1884168.6500000001,643.3000000000001,5
14214415,1177208.55,1882802.4000000001,594.76,2
14214502,1177208.56,1883552.19,631.23,5
14214507,1177208.56,1883505.08,621.35,5
14214518,1177208.56,1883124.53,594.16,2
14214707,1177208.59,1883845.17,642.46,5
14215291,1177208.66,1883095.61,595.12,2
14215406,1177208.68,1884064.85,616.86,5
14215605,1177208.7,1884028.57,631.89,5
14215896,1177208.73,1883967.46,628.4300000000001,5
14215959,1177208.74,1884679.49,594.61,3
14215966,1177208.74,1884558.75,639.03,5
14216401,1177208.78,1884529.86,633.21,5
14216416,1177208.78,1884308.98,594.19,2
14216437,1177208.78,1884157.77,603.27,3
14216498,1177208.78,1883515.1600000001,608.8100000000001,4
14216523,1177208.79,1884580.4100000001,618.26,5
14216665,1177208.8,1883878.97,639.27,5
14216725,1177208.81,1884560.75,627.58,5
14216808,1177208.81,1883680.52,601.09,3
14216821,1177208.81,1883510.82,634.89,5
14217224,1177208.85,1883999.1400000001,634.0500000000001,5
14217375,1177208.86,1883547.94,625.58,5
14217462,1177208.87,1883565.48,642.03,5
14217617,1177208.8900000001,1884516.49,631.47,5
14218113,1177208.93,1884107.17,625.22,5
14218152,1177208.93,1883495.5,623.61,5
14218673,1177208.99,1884066.19,626.46,5
14218763,1177209.0,1884099.29,644.02,5
14218991,1177209.03,1884892.26,619.24,5
14219105,1177209.04,1884435.58,626.29,5
14219357,1177209.07,1883881.36,626.73,5
14219399,1177209.08,1884433.04,619.61,5
14219502,1177209.09,1883804.68,635.41,5
14219757,1177209.1300000001,1884680.09,599.14,3
14220040,1177209.17,1884424.32,619.13,5
14220167,1177209.19,1884302.87,622.53,5
14220309,1177209.21,1884156.93,621.99,5
14220561,1177209.25,1884035.22,615.77,5
14220941,1177209.3,1883081.8900000001,595.57,2
14221041,1177209.32,1883969.87,621.75,5
14221660,1177209.4000000001,1883715.54,607.09,4
14221729,1177209.41,1883899.3800000001,638.46,5
14221800,1177209.42,1884164.29,646.13,5
14222051,1177209.45,1884904.1,635.37,5
14222313,1177209.47,1883375.1600000001,594.22,2
14223345,1177209.57,1883963.43,620.15,5
14224027,1177209.6300000001,1884191.9100000001,623.63,5
14224107,1177209.6400000001,1884994.42,593.83,2
14224392,1177209.66,1883867.81,594.14,2
14224488,1177209.67,1884194.78,633.09,5
14224756,1177209.69,1883916.87,594.27,2
14225392,1177209.76,1884260.28,615.52,5
14225548,1177209.78,1884675.6,599.61,3
14225559,1177209.78,1884536.72,623.97,5
14225736,1177209.8,1884134.81,643.76,5
14225913,1177209.82,1884063.9000000001,617.03,5
14225946,1177209.83,1884562.25,637.1,5
14226217,1177209.86,1883802.83,633.59,5
14226514,1177209.9000000001,1883086.08,599.09,3
14226746,1177209.94,1884896.56,639.12,5
14226829,1177209.95,1884323.32,639.02,5
14227003,1177209.97,1883909.78,623.99,5
14227285,1177210.01,1884055.57,615.51,5
14227512,1177210.04,1884324.6,638.91,5
14227605,1177210.05,1884288.85,632.12,5
14227900,1177210.08,1883550.45,633.14,5
14228771,1177210.18,1884558.81,638.77,5
14228968,1177210.2,1884561.01,635.5500000000001,5
14229196,1177210.22,1884514.44,627.87,5
14229270,1177210.22,1883580.52,606.95,4
14229436,1177210.24,1883896.77,620.15,5
14229467,1177210.24,1883567.11,623.14,5
14229499,1177210.25,1884664.34,593.8000000000001,2
14229586,1177210.25,1883684.27,594.1800000000001,2
14229609,1177210.26,1884920.56,627.63,5
14229745,1177210.27,1884300.1600000001,634.24,5
14229789,1177210.27,1883827.23,653.0500000000001,5
14229908,1177210.28,1882588.55,594.91,2
14230712,1177210.36,1883931.42,611.15,4
14230733,1177210.36,1883569.52,594.77,2
14230800,1177210.37,1884146.09,649.14,5
14231213,1177210.41,1884054.37,614.3100000000001,5
14231528,1177210.45,1884581.24,610.4,4
14231723,1177210.47,1884454.74,625.52,5
14231899,1177210.49,1884514.29,630.32,5
14232574,1177210.58,1884022.1400000001,638.25,5
14232640,1177210.59,1884143.2,622.17,5
14233156,1177210.66,1883161.71,605.85,4
14233313,1177210.69,1884534.61,630.14,5
14233552,1177210.72,1884016.0,631.28,5
14233726,1177210.74,1883439.37,594.38,2
14234076,1177210.79,1884421.1,594.5,2
14234146,1177210.8,1884420.04,630.9,5
14234199,1177210.8,1883831.05,650.73,5
14234292,1177210.81,1883425.74,594.35,2
14234325,1177210.82,1884304.9100000001,629.6,5
14234523,1177210.84,1883897.2,640.94,5
14234638,1177210.85,1883907.69,629.47,5
14234650,1177210.85,1883730.22,608.29,4
14235094,1177210.9000000001,1883992.67,636.07,5
14235263,1177210.92,1884556.53,639.35,5
14235307,1177210.92,1884013.53,619.12,5
14235312,1177210.92,1883968.47,620.23,5
14235653,1177210.95,1883604.27,620.19,5
14235782,1177210.97,1884670.12,594.01,2
14236075,1177210.99,1883828.73,654.15,5
14236331,1177211.01,1883536.8900000001,637.15,5
14236708,1177211.05,1884170.7,644.9,5
14236726,1177211.05,1883998.58,614.4300000000001,5
14236731,1177211.05,1883984.81,593.83,2
14236733,1177211.05,1883953.6300000001,606.69,4
14236948,1177211.07,1883884.37,636.5500000000001,5
14237564,1177211.1300000001,1884101.29,648.29,5
14237814,1177211.16,1884503.12,623.6800000000001,5
14238030,1177211.18,1884147.75,641.15,5
14238031,1177211.18,1884144.54,647.3000000000001,5
14238034,1177211.18,1884096.6300000001,639.5500000000001,5
14238299,1177211.21,1884263.1300000001,603.0,3
14238317,1177211.21,1884074.68,621.85,5
14238611,1177211.25,1884286.1600000001,629.22,5
14238826,1177211.28,1884559.47,633.07,5
14238832,1177211.28,1884527.34,626.69,5
14238903,1177211.29,1884513.01,626.27,5
14238972,1177211.3,1884529.49,624.16,5
14239076,1177211.31,1884131.8,624.42,5
14239166,1177211.32,1884072.61,620.04,5
14239265,1177211.33,1883854.07,594.0,2
14239832,1177211.41,1884149.6300000001,629.49,5
14240307,1177211.47,1883589.3800000001,617.16,5
14240595,1177211.51,1883747.1300000001,593.66,2
14240794,1177211.54,1884312.12,630.03,5
14240796,1177211.54,1884326.07,628.19,5
14241213,1177211.58,1883585.1400000001,621.34,5
14241338,1177211.6,1884030.12,617.0500000000001,5
14241637,1177211.6300000001,1883853.5,645.13,5
14241867,1177211.6500000001,1883679.49,600.09,3
14241890,1177211.66,1884931.71,613.33,4
14241957,1177211.66,1883907.57,632.96,5
14242089,1177211.67,1883599.6600000001,614.96,5
14242234,1177211.69,1884661.53,593.88,2
14242347,1177211.7,1884716.31,594.24,2
14242419,1177211.7,1883602.31,609.3000000000001,4
14242778,1177211.74,1884518.58,634.11,5
14242847,1177211.74,1883592.76,615.71,5
14243193,1177211.77,1883640.9100000001,594.17,2
14243257,1177211.78,1884526.45,629.5500000000001,5
14243529,1177211.8,1883593.31,632.29,5
14244233,1177211.87,1884584.0,615.44,5
14244629,1177211.91,1884216.86,610.07,4
14244775,1177211.93,1884223.1,594.12,2
14244873,1177211.94,1884171.43,625.36,5
14245078,1177211.96,1883501.77,623.08,5
14245090,1177211.96,1882592.12,594.91,2
14245303,1177211.99,1883674.56,601.14,3
14245335,1177212.0,1884527.8800000001,594.09,2
14245455,1177212.01,1883731.03,613.04,4
14245543,1177212.02,1882528.79,594.8000000000001,2
14246032,1177212.1,1884074.12,621.61,5
14246045,1177212.1,1883724.24,605.58,4
14246064,1177212.11,1884844.82,593.96,2
14246715,1177212.21,1884432.33,617.54,5
14246765,1177212.21,1883089.79,595.15,2
14246827,1177212.22,1883729.23,610.16,4
14247244,1177212.27,1883098.3,596.85,3
14247861,1177212.35,1884548.1300000001,634.66,5
14248278,1177212.3900000001,1884057.81,624.35,5
14248288,1177212.3900000001,1883911.3800000001,628.0,5
14248780,1177212.44,1884074.18,618.84,5
14248976,1177212.46,1884209.6600000001,613.4300000000001,4
14249047,1177212.47,1884887.26,625.65,5
14249376,1177212.49,1883603.68,620.61,5
14249535,1177212.51,1884892.93,626.92,5
14250479,1177212.59,1883924.33,622.9300000000001,5
14250624,1177212.6,1883260.3800000001,593.75,2
14250702,1177212.61,1883838.93,649.97,5
14250755,1177212.62,1884228.84,594.14,2
14251114,1177212.66,1884104.34,647.97,5
14251286,1177212.68,1884210.79,614.08,5
14251689,1177212.73,1884100.36,594.02,2
14252222,1177212.8,1883498.1600000001,627.32,5
14252291,1177212.81,1883545.69,594.54,2
14252416,1177212.83,1883820.85,651.0600000000001,5
14252483,1177212.84,1884030.33,602.9300000000001,3
14252548,1177212.85,1884011.56,619.47,5
14252869,1177212.8900000001,1883115.77,594.44,2
14252990,1177212.91,1884069.48,611.51,4
14253236,1177212.94,1883979.3900000001,624.5,5
14253304,1177212.95,1884269.53,621.35,5
14253465,1177212.97,1884405.17,613.84,4
14253694,1177212.99,1883580.6600000001,625.62,5
14253783,1177213.0,1883751.4100000001,593.5500000000001,2
14254033,1177213.03,1883831.32,651.17,5
14254439,1177213.07,1883554.44,624.85,5
14254728,1177213.1,1883548.27,623.38,5
14255203,1177213.1500000001,1884306.19,631.0,5
14255405,1177213.17,1884133.29,637.76,5
14255484,1177213.18,1884308.61,624.67,5
14255585,1177213.19,1884140.99,646.5600000000001,5
14255861,1177213.22,1884903.96,635.87,5
14256010,1177213.23,1883944.34,594.2,2
14256461,1177213.28,1883895.05,635.98,5
14256491,1177213.28,1883297.85,593.52,2
14256839,1177213.33,1884192.87,623.07,5
14257002,1177213.35,1884886.1300000001,622.1800000000001,5
14257029,1177213.35,1884154.6,647.91,5
14257592,1177213.42,1883583.01,626.82,5
14257770,1177213.45,1884535.6500000001,622.64,5
14257780,1177213.45,1884311.99,628.98,5
14257901,1177213.47,1884844.1600000001,593.97,2
14258810,1177213.6,1883500.42,623.5500000000001,5
14259021,1177213.6300000001,1883478.35,594.29,2
14259312,1177213.68,1884531.06,621.42,5
14259488,1177213.7,1883874.87,632.37,5
14259752,1177213.74,1884907.1500000001,634.04,5
14259757,1177213.74,1884558.03,638.02,5
14259786,1177213.74,1883974.2,623.13,5
14260179,1177213.78,1883681.12,602.22,3
14260295,1177213.8,1884915.2,609.47,4
14260387,1177213.8,1883386.79,594.25,2
14260430,1177213.81,1883958.42,604.35,3
14260650,1177213.83,1883867.45,636.36,5
14260733,1177213.84,1883915.33,616.19,5
14261381,1177213.9000000001,1884062.79,594.09,2
14261513,1177213.91,1883844.62,652.03,5
14261665,1177213.92,1883562.3800000001,637.63,5
14261879,1177213.94,1883887.7,642.97,5
14261882,1177213.94,1883858.34,633.07,5
14261885,1177213.94,1883848.95,653.32,5
14261917,1177213.94,1883369.19,616.76,5
14262203,1177213.97,1884265.6600000001,609.23,4
14262283,1177213.97,1883522.92,617.46,5
14262297,1177213.98,1884919.12,621.4,5
14262342,1177213.98,1884099.29,645.76,5
14262598,1177214.0,1883826.58,653.98,5
14263268,1177214.06,1883575.17,630.2,5
14263273,1177214.06,1883374.1400000001,609.38,4
14263373,1177214.08,1884551.08,612.26,4
14263684,1177214.11,1884549.52,635.94,5
14263733,1177214.11,1884043.27,613.6800000000001,4
14263942,1177214.1300000001,1883567.98,594.78,2
14264471,1177214.19,1883957.36,599.34,3
14264485,1177214.19,1883513.1,614.9300000000001,5
14264601,1177214.21,1884526.68,613.59,4
14264804,1177214.23,1883572.8,637.25,5
14264874,1177214.24,1884034.49,638.9,5
14265074,1177214.27,1884511.17,615.64,5
14265192,1177214.28,1883854.7,593.91,2
14265528,1177214.32,1883095.24,611.2,4
14265691,1177214.35,1884260.27,606.76,4
14265711,1177214.35,1883705.27,615.08,5
14266240,1177214.43,1884918.1500000001,624.0600000000001,5
14266280,1177214.43,1883868.86,628.23,5
14266678,1177214.49,1884761.87,593.95,2
14266727,1177214.49,1883677.1600000001,594.14,2
14267430,1177214.58,1884177.85,626.8000000000001,5
14267664,1177214.6,1883048.8900000001,609.82,4
14268012,1177214.6400000001,1883857.49,636.75,5
14268206,1177214.66,1883837.56,650.08,5
14268221,1177214.66,1883562.1400000001,639.9,5
14268529,1177214.7,1884547.28,619.98,5
14268546,1177214.7,1884215.85,612.5600000000001,4
14268659,1177214.71,1883862.96,631.16,5
14269222,1177214.77,1883512.31,633.5600000000001,5
14269319,1177214.79,1884912.02,593.88,2
14269457,1177214.8,1883924.83,594.01,2
14269783,1177214.84,1883523.26,626.82,5
14269894,1177214.86,1884205.86,610.01,4
14270203,1177214.9000000001,1884267.06,618.54,5
14270372,1177214.92,1883792.82,605.97,4
14270593,1177214.95,1883994.93,630.57,5
14270614,1177214.96,1884884.55,625.79,5
14270726,1177214.97,1884073.94,627.6,5
14270781,1177214.98,1884421.08,629.45,5
14270812,1177214.98,1883719.45,613.79,5
14270975,1177215.0,1882813.28,594.4300000000001,2
14271084,1177215.02,1883570.26,594.73,2
14271226,1177215.04,1883895.31,634.37,5
14271426,1177215.07,1884410.72,621.85,5
14271517,1177215.08,1884292.18,632.13,5
14272092,1177215.1500000001,1883918.26,615.5,5
14272145,1177215.16,1884442.29,627.5600000000001,5
14272389,1177215.18,1883399.03,594.21,2
14272415,1177215.19,1884527.9000000001,631.6,5
14272581,1177215.2,1883580.98,617.01,5
14272734,1177215.22,1884519.76,615.99,5
14272766,1177215.22,1883991.75,633.44,5
14272893,1177215.23,1883842.52,649.51,5
14272940,1177215.23,1883037.85,594.86,2
14272985,1177215.24,1884159.04,647.73,5
14273021,1177215.24,1883847.67,651.85,5
14273047,1177215.24,1883545.72,633.2,5
14273086,1177215.25,1884651.4000000001,598.44,3
14273241,1177215.26,1884064.1300000001,594.0,2
14273659,1177215.3,1884712.09,594.17,2
14274061,1177215.33,1883963.0,618.29,5
14274109,1177215.33,1883420.46,625.17,5
14274499,1177215.37,1884677.4000000001,593.88,2
14274608,1177215.37,1883528.04,622.23,5
14275161,1177215.42,1883844.1500000001,594.1,2
14275230,1177215.43,1884329.9100000001,597.0,3
14275347,1177215.44,1884164.8800000001,626.5600000000001,5
14275368,1177215.44,1883939.78,616.67,5
14275441,1177215.45,1884501.24,625.1,5
14275574,1177215.46,1884103.05,634.8100000000001,5
14275676,1177215.47,1883978.81,617.34,5
14276029,1177215.51,1884159.6500000001,646.82,5
14276398,1177215.55,1884041.1400000001,634.91,5
14276568,1177215.57,1883494.4100000001,613.34,4
14276575,1177215.57,1883497.37,622.45,5
14276746,1177215.6,1884462.76,597.16,3
14276877,1177215.62,1884532.95,623.09,5
14277191,1177215.66,1883186.6600000001,594.37,2
14277221,1177215.67,1884313.46,622.02,5
14277404,1177215.69,1883413.27,619.9,5
14277537,1177215.71,1883367.18,617.36,5
14277758,1177215.75,1884032.11,640.19,5
14278063,1177215.8,1884475.1500000001,594.0,2
14278555,1177215.8800000001,1884248.99,619.75,5
14278724,1177215.9000000001,1883906.42,625.83,5
14278831,1177215.92,1884899.82,619.22,5
14278973,1177215.93,1883527.25,608.38,4
14279273,1177215.97,1883978.26,615.24,5
14279512,1177216.0,1884257.32,624.23,5
14279736,1177216.02,1883810.47,643.25,5
14279964,1177216.05,1884210.82,614.4,5
14280113,1177216.06,1883495.01,612.5500000000001,4
14280188,1177216.07,1883848.86,651.82,5
14280210,1177216.07,1883373.45,623.58,5
14280333,1177216.09,1884263.8800000001,628.26,5
14280562,1177216.11,1883823.05,650.27,5
14281061,1177216.16,1883534.8900000001,632.33,5
14281186,1177216.18,1884209.54,612.61,4
14281451,1177216.21,1884528.3800000001,619.63,5
14281470,1177216.21,1884210.18,611.23,4
14281589,1177216.22,1883587.29,626.19,5
14281705,1177216.23,1883063.32,623.75,5
14281824,1177216.25,1884902.01,594.13,2
14281900,1177216.26,1884938.0,594.04,2
14282116,1177216.28,1884467.61,596.73,3
14282397,1177216.31,1884191.26,636.53,5
14283252,1177216.41,1884024.46,629.72,5
14283283,1177216.41,1883076.17,619.0600000000001,5
14283360,1177216.42,1883490.71,614.09,4
14283410,1177216.43,1884416.03,628.02,5
14283462,1177216.43,1883412.46,623.26,5
14283658,1177216.46,1884811.71,594.01,2
14283689,1177216.46,1884034.61,634.91,5
14283763,1177216.47,1884161.67,594.07,2
14283922,1177216.49,1884190.26,622.37,5
14284073,1177216.5,1882785.04,594.9300000000001,2
14284094,1177216.51,1884395.43,609.04,4
14284166,1177216.52,1884816.1300000001,594.04,2
14284659,1177216.57,1883993.71,620.52,5
14284856,1177216.59,1883710.52,611.52,4
14284963,1177216.6,1883575.4000000001,632.12,5
14285044,1177216.61,1883908.46,626.9,5
14285153,1177216.62,1883561.72,632.41,5
14285394,1177216.6500000001,1884300.27,623.76,5
14285488,1177216.66,1884048.98,593.98,2
14285505,1177216.66,1883910.7,614.6800000000001,5
14285825,1177216.69,1883048.7,594.95,2
14286099,1177216.72,1883887.83,636.47,5
14286167,1177216.73,1884182.81,624.44,5
14286267,1177216.74,1884108.62,637.07,5
14286938,1177216.8,1883704.67,604.02,3
14286950,1177216.8,1883513.9100000001,628.26,5
14287023,1177216.81,1883888.22,625.6,5
14287207,1177216.83,1884156.26,647.3100000000001,5
14287413,1177216.85,1884140.43,636.5500000000001,5
14287879,1177216.9000000001,1884534.31,620.01,5
14287926,1177216.9000000001,1883551.76,627.78,5
14288111,1177216.92,1883547.71,634.91,5
14288352,1177216.95,1883923.01,623.15,5
14288418,1177216.96,1884215.99,612.5500000000001,4
14288587,1177216.98,1884095.44,645.96,5
14289066,1177217.04,1884066.1300000001,619.48,5
14289121,1177217.05,1884416.72,628.89,5
14289176,1177217.05,1883220.6300000001,593.8100000000001,2
14290044,1177217.18,1884448.8800000001,623.21,5
14290100,1177217.18,1883082.3900000001,623.75,5
14290585,1177217.25,1883875.04,594.01,2
14290593,1177217.25,1883575.52,629.22,5
14290858,1177217.29,1884890.0,627.21,5
14291074,1177217.31,1883161.49,609.13,4
14291427,1177217.36,1884571.32,612.76,4
14291496,1177217.36,1883365.7,613.87,4
14291583,1177217.37,1883366.59,594.17,2
14291738,1177217.3900000001,1883676.83,601.0,3
14292023,1177217.42,1883803.48,632.78,5
14292989,1177217.51,1883793.58,611.51,4
14293122,1177217.52,1883344.1300000001,594.14,2
14293899,1177217.59,1883523.56,629.2,5
14294235,1177217.62,1883499.19,616.02,5
14294301,1177217.6300000001,1884099.98,646.67,5
14294388,1177217.6400000001,1884206.7,608.8000000000001,4
14294651,1177217.66,1883378.7,617.89,5
14295364,1177217.74,1884146.52,593.98,2
14295468,1177217.75,1884072.6300000001,623.12,5
14295502,1177217.75,1883379.45,616.76,5
14296063,1177217.82,1884168.6300000001,628.73,5
14296143,1177217.83,1884565.29,631.46,5
14296202,1177217.83,1883501.4000000001,614.77,5
14296420,1177217.86,1883882.62,624.28,5
14296629,1177217.8900000001,1883866.07,617.8000000000001,5
14296658,1177217.8900000001,1883376.01,602.89,3
14296726,1177217.9000000001,1883894.6400000001,634.44,5
14297098,1177217.95,1884294.1600000001,631.99,5
14297626,1177218.03,1883895.8,611.87,4
14297660,1177218.03,1883384.79,611.51,4
14298114,1177218.1,1883918.26,613.22,4
14298244,1177218.11,1882716.4000000001,595.36,2
14298380,1177218.1300000001,1883840.9000000001,655.34,5
14298668,1177218.17,1884561.08,633.6800000000001,5
14298781,1177218.18,1884123.73,645.89,5
14299049,1177218.21,1884128.53,620.28,5
14299079,1177218.21,1883823.77,653.66,5
14299327,1177218.24,1884026.47,640.73,5
14299555,1177218.26,1883066.45,619.97,5
14300065,1177218.33,1884930.87,594.04,2
14300340,1177218.36,1884063.06,623.01,5
14300416,1177218.37,1884536.85,626.34,5
14300571,1177218.3900000001,1884898.53,619.09,5
14300594,1177218.3900000001,1884133.04,619.84,5
14300767,1177218.41,1884158.77,626.28,5
14301018,1177218.44,1883926.25,593.86,2
14301367,1177218.49,1884194.09,621.83,5
14301762,1177218.55,1884427.03,625.77,5
14301779,1177218.55,1884003.87,619.66,5
14302434,1177218.6400000001,1883758.7,594.0500000000001,2
14302463,1177218.6400000001,1883051.36,621.58,5
14302505,1177218.6500000001,1884075.59,621.91,5
14302711,1177218.67,1882784.31,594.9,2
14302836,1177218.69,1883981.6300000001,625.67,5
14303112,1177218.72,1882740.25,595.22,2
14303406,1177218.76,1883778.32,593.34,2
14303876,1177218.81,1883397.56,594.15,2
14304114,1177218.84,1883860.86,628.02,5
14304484,1177218.8800000001,1884927.09,619.23,5
14304728,1177218.9000000001,1884216.9000000001,604.38,4
14304738,1177218.9000000001,1884050.04,612.12,4
14304964,1177218.92,1883701.81,610.16,4
14305516,1177218.97,1883528.87,616.17,5
14305551,1177218.98,1884308.35,594.08,2
14305640,1177218.99,1884690.34,594.0600000000001,2
14305750,1177219.0,1884888.75,627.97,5
14305837,1177219.0,1883374.4000000001,594.16,2
14305940,1177219.01,1883499.0,623.1800000000001,5
14306111,1177219.03,1883967.37,593.84,2
14306189,1177219.04,1884291.75,593.97,2
14306293,1177219.05,1883904.77,608.16,4
